ply
format ascii 1.0
element vertex 1648
property float x
property float y
property float z
end_header
0.110759 -0.564557 0.530196
-0.297468 -0.048101 0.583529
0.120253 -0.200000 0.448627
0.272152 -0.382278 0.476863
-0.136076 -0.321519 0.646275
-0.031646 0.088608 0.599216
0.044304 -0.518987 0.586667
-0.060127 -0.093671 0.608627
0.319620 0.772152 0.062745
0.082278 -0.230380 0.583529
0.015823 -0.154430 0.627451
-0.297468 0.103797 0.552157
0.091772 0.635443 0.665098
-0.041139 -0.017722 0.505098
-0.202532 0.270886 0.643137
0.082278 -0.488608 0.564706
-0.183544 0.225316 0.109804
-0.174051 -0.230380 0.658824
-0.155063 0.088608 0.624314
0.167722 0.012658 0.599216
0.006329 0.118987 0.608627
-0.344937 -0.017722 0.580392
0.044304 -0.534177 0.589804
0.034810 0.012658 0.511373
0.129747 -0.063291 0.574118
0.300633 0.012658 0.592941
0.481013 0.012658 0.558431
-0.316456 -0.321519 0.671373
-0.079114 0.240506 0.661961
0.072785 -0.017722 0.618039
-0.306962 0.088608 0.583529
-0.183544 -0.336709 0.621176
0.357595 -0.139241 0.558431
-0.278481 -0.534177 0.549020
-0.212025 0.468354 0.658824
-0.145570 0.058228 0.621176
-0.136076 -0.458228 0.599216
0.044304 -0.564557 0.611765
-0.174051 -0.351899 0.618039
-0.050633 -0.002532 0.517647
-0.212025 -0.549367 0.489412
-0.202532 0.468354 0.668235
0.167722 0.179747 0.561569
0.015823 -0.549367 0.586667
-0.193038 -0.534177 0.470588
0.015823 -0.443038 0.592941
0.433544 0.179747 0.583529
0.234177 0.149367 0.643137
-0.306962 0.802532 0.003137
-0.060127 0.179747 0.665098
-0.250000 0.346835 0.674510
0.101266 0.620253 0.655686
0.481013 0.058228 0.549020
0.129747 -0.367089 0.483137
-0.117089 0.392405 0.671373
0.386076 0.058228 0.589804
0.481013 0.225316 0.558431
-0.221519 -0.063291 0.599216
-0.003165 -0.002532 0.514510
0.205696 -0.048101 0.712157
0.433544 -0.002532 0.574118
0.006329 0.240506 0.677647
0.082278 -0.078481 0.618039
-0.107595 -0.488608 0.599216
0.338608 -0.139241 0.567843
0.186709 0.605063 0.376471
0.329114 -0.260760 0.542745
0.262658 -0.017722 0.592941
0.110759 -0.306329 0.498824
0.262658 0.012658 0.592941
-0.022152 0.392405 0.668235
-0.221519 -0.139241 0.640000
0.110759 -0.594937 0.520784
-0.221519 0.437975 0.665098
0.101266 -0.412658 0.530196
-0.031646 -0.093671 0.614902
-0.221519 0.255696 0.009412
-0.098101 -0.139241 0.652549
0.015823 0.513924 0.624314
-0.325949 -0.002532 0.618039
0.262658 0.179747 0.640000
0.243671 0.194937 0.655686
0.186709 -0.412658 0.495686
-0.060127 0.073418 0.549020
0.034810 -0.108861 0.624314
0.025316 0.225316 0.643137
0.319620 -0.093671 0.580392
0.015823 -0.625316 0.602353
0.025316 -0.807595 0.382745
0.006329 0.529114 0.630588
0.034810 -0.048101 0.621176
-0.060127 0.286076 0.665098
-0.117089 0.468354 0.671373
-0.031646 0.346835 0.665098
-0.022152 -0.260760 0.630588
-0.259494 0.832911 0.006275
-0.041139 -0.200000 0.640000
0.120253 -0.215190 0.467451
0.053797 -0.443038 0.580392
0.101266 -0.260760 0.530196
-0.344937 0.058228 0.658824
-0.117089 0.179747 0.677647
-0.136076 -0.534177 0.523922
0.025316 0.027848 0.533333
0.186709 0.711392 0.683922
0.025316 -0.139241 0.633725
0.053797 -0.291139 0.599216
-0.183544 -0.124051 0.640000
0.452532 0.164557 0.577255
0.177215 0.741772 0.677647
0.386076 -0.108861 0.570980
-0.050633 -0.549367 0.558431
-0.297468 0.544304 0.643137
0.082278 -0.564557 0.592941
0.319620 -0.124051 0.574118
0.224684 -0.291139 0.624314
-0.088608 0.544304 0.646275
-0.050633 -0.169620 0.646275
0.101266 0.605063 0.618039
0.215190 -0.002532 0.649412
-0.098101 -0.458228 0.611765
0.253165 -0.032911 0.586667
-0.231013 -0.503797 0.552157
0.414557 -0.048101 0.580392
-0.079114 0.043038 0.602353
-0.202532 0.088608 0.627451
0.471519 -0.017722 0.564706
-0.297468 0.513924 0.649412
-0.259494 0.194937 0.658824
-0.221519 -0.169620 0.646275
0.044304 -0.610127 0.611765
0.443038 -0.002532 0.567843
0.091772 0.012658 0.580392
0.120253 -0.427848 0.523922
0.243671 -0.184810 0.523922
0.310127 -0.306329 0.530196
-0.003165 0.118987 0.611765
0.053797 -0.306329 0.599216
0.376582 -0.002532 0.589804
-0.060127 0.255696 0.665098
-0.060127 -0.321519 0.624314
-0.306962 -0.488608 0.552157
-0.306962 -0.534177 0.404706
-0.250000 -0.655696 0.410980
0.462025 0.103797 0.567843
-0.259494 0.118987 0.329412
-0.164557 -0.093671 0.611765
-0.250000 -0.488608 0.589804
0.243671 -0.351899 0.508235
0.215190 -0.048101 0.549020
-0.003165 0.043038 0.570980
-0.107595 -0.002532 0.555294
0.414557 -0.002532 0.577255
0.072785 -0.701266 0.508235
0.158228 0.058228 0.624314
0.481013 -0.002532 0.567843
-0.126582 -0.594937 0.458039
0.148734 -0.488608 0.122353
-0.041139 0.529114 0.643137
0.319620 -0.078481 0.580392
0.310127 -0.017722 0.586667
-0.306962 -0.625316 0.586667
-0.136076 0.529114 0.655686
0.262658 -0.048101 0.589804
-0.325949 -0.594937 0.586667
-0.050633 -0.306329 0.624314
-0.069620 -0.397468 0.614902
-0.259494 0.301266 0.661961
0.044304 -0.412658 0.586667
0.101266 0.346835 0.580392
0.129747 -0.200000 0.498824
-0.174051 0.286076 0.539608
0.262658 0.027848 0.646275
-0.183544 0.301266 0.015686
-0.221519 -0.306329 0.564706
-0.306962 -0.017722 0.614902
-0.079114 -0.397468 0.614902
0.481013 0.149367 0.580392
0.291139 0.027848 0.586667
0.101266 -0.032911 0.602353
0.215190 0.620253 0.536471
-0.259494 0.437975 0.618039
-0.202532 0.377215 0.680784
-0.031646 -0.260760 0.624314
0.034810 0.073418 0.580392
0.177215 -0.503797 0.144314
-0.287975 -0.534177 0.523922
-0.041139 0.574684 0.624314
-0.003165 -0.200000 0.630588
0.338608 -0.154430 0.574118
-0.098101 0.286076 0.671373
-0.107595 0.255696 0.677647
-0.088608 0.027848 0.592941
-0.012658 0.468354 0.655686
0.253165 -0.124051 0.570980
-0.126582 -0.215190 0.658824
0.262658 -0.260760 0.511373
0.120253 0.088608 0.574118
-0.316456 0.681013 0.687059
0.215190 -0.427848 0.564706
0.101266 -0.655696 0.501961
0.262658 0.711392 0.003137
0.006329 0.422785 0.658824
-0.164557 -0.078481 0.599216
-0.098101 -0.245570 0.655686
-0.231013 0.058228 0.298039
0.348101 -0.124051 0.577255
0.300633 0.756962 0.000000
-0.022152 -0.291139 0.618039
-0.316456 -0.458228 0.586667
0.044304 0.529114 0.545882
-0.050633 -0.321519 0.624314
0.110759 0.559494 0.439216
-0.031646 -0.412658 0.614902
0.082278 -0.503797 0.574118
0.110759 -0.260760 0.498824
0.072785 -0.078481 0.624314
0.357595 -0.154430 0.549020
-0.079114 0.437975 0.674510
0.072785 0.589873 0.633725
-0.297468 -0.564557 0.489412
-0.250000 -0.670886 0.467451
0.072785 0.453165 0.602353
0.462025 0.043038 0.567843
0.262658 -0.032911 0.589804
0.253165 -0.397468 0.511373
-0.003165 0.058228 0.577255
-0.098101 -0.291139 0.649412
0.462025 -0.032911 0.564706
0.234177 -0.048101 0.580392
-0.259494 -0.200000 0.602353
-0.221519 -0.610127 0.445490
-0.022152 0.270886 0.658824
0.167722 0.589873 0.354510
0.063291 -0.291139 0.592941
-0.060127 -0.503797 0.596078
0.110759 0.301266 0.561569
0.101266 -0.154430 0.580392
-0.278481 -0.518987 0.577255
-0.041139 0.544304 0.643137
0.110759 -0.640506 0.486275
0.015823 -0.458228 0.589804
0.148734 0.726582 0.674510
-0.136076 -0.078481 0.592941
-0.155063 -0.412658 0.602353
0.015823 0.118987 0.605490
-0.069620 -0.594937 0.514510
0.053797 0.346835 0.624314
-0.050633 -0.063291 0.564706
-0.259494 0.726582 0.630588
-0.212025 0.362025 0.680784
0.053797 -0.670886 0.599216
0.338608 -0.017722 0.586667
0.310127 -0.321519 0.523922
-0.088608 -0.139241 0.655686
-0.003165 -0.488608 0.586667
-0.193038 0.240506 0.000000
-0.060127 -0.382278 0.621176
-0.164557 -0.640506 0.363922
-0.088608 -0.306329 0.646275
-0.136076 0.286076 0.677647
0.072785 0.027848 0.574118
0.063291 0.635443 0.668235
0.386076 0.164557 0.564706
-0.012658 -0.291139 0.614902
0.319620 -0.230380 0.545882
0.196203 -0.534177 0.376471
-0.221519 -0.367089 0.549020
-0.202532 -0.412658 0.523922
-0.003165 -0.306329 0.618039
0.053797 -0.762025 0.370196
0.148734 -0.367089 0.636863
0.006329 -0.200000 0.621176
0.443038 -0.017722 0.564706
0.053797 0.498734 0.561569
-0.050633 -0.518987 0.586667
-0.335443 -0.002532 0.608627
0.025316 0.149367 0.618039
-0.268987 0.589873 0.652549
-0.050633 -0.564557 0.549020
-0.231013 0.012658 0.326275
0.376582 -0.124051 0.574118
-0.012658 0.437975 0.668235
0.167722 -0.382278 0.470588
-0.212025 0.179747 0.658824
0.215190 -0.078481 0.545882
-0.012658 0.346835 0.627451
0.196203 -0.397468 0.508235
-0.268987 0.741772 0.658824
-0.031646 0.073418 0.602353
-0.022152 -0.534177 0.561569
0.234177 0.118987 0.621176
-0.174051 0.544304 0.649412
-0.041139 0.194937 0.655686
-0.041139 -0.412658 0.618039
0.053797 0.316456 0.056471
-0.202532 0.194937 0.486275
0.281646 0.179747 0.589804
-0.202532 0.422785 0.674510
-0.202532 0.103797 0.636863
-0.221519 -0.473418 0.549020
0.310127 -0.260760 0.539608
-0.221519 0.407595 0.677647
0.072785 0.392405 0.608627
-0.164557 -0.382278 0.605490
0.300633 -0.275949 0.530196
0.063291 0.073418 0.517647
-0.250000 0.286076 0.665098
0.072785 0.255696 0.636863
-0.221519 0.286076 0.000000
-0.003165 -0.184810 0.630588
0.101266 0.286076 0.586667
-0.126582 -0.640506 0.401569
0.034810 -0.336709 0.611765
0.196203 -0.443038 0.122353
0.129747 -0.640506 0.542745
-0.231013 0.483544 0.618039
0.044304 -0.260760 0.611765
-0.041139 -0.169620 0.636863
-0.031646 0.149367 0.621176
-0.107595 -0.640506 0.410980
-0.126582 0.483544 0.671373
0.329114 0.118987 0.633725
-0.250000 -0.503797 0.592941
0.110759 -0.610127 0.511373
0.205696 -0.306329 0.480000
-0.297468 0.043038 0.602353
0.053797 0.255696 0.646275
-0.335443 -0.579747 0.592941
0.101266 -0.108861 0.614902
0.348101 -0.032911 0.583529
0.110759 0.316456 0.570980
-0.060127 0.377215 0.671373
0.405063 0.043038 0.580392
-0.136076 -0.017722 0.545882
-0.098101 -0.488608 0.599216
-0.221519 -0.351899 0.520784
-0.193038 -0.594937 0.432941
0.025316 -0.731646 0.495686
0.072785 -0.412658 0.564706
0.234177 -0.382278 0.514510
-0.240506 0.210127 0.671373
0.186709 0.741772 0.683922
0.243671 -0.200000 0.476863
-0.221519 -0.382278 0.545882
-0.240506 -0.458228 0.596078
-0.325949 -0.427848 0.643137
0.234177 -0.017722 0.640000
0.395570 -0.002532 0.586667
0.034810 0.422785 0.640000
-0.183544 0.210127 0.677647
0.177215 -0.351899 0.476863
-0.022152 -0.048101 0.555294
0.072785 0.331646 0.624314
0.205696 -0.017722 0.668235
0.443038 -0.093671 0.561569
0.129747 -0.306329 0.470588
0.452532 0.255696 0.580392
-0.183544 0.316456 0.614902
0.025316 0.270886 0.003137
0.120253 0.681013 0.671373
-0.069620 -0.200000 0.649412
0.253165 0.118987 0.574118
-0.069620 0.255696 0.668235
0.072785 0.043038 0.501961
0.224684 -0.306329 0.514510
-0.117089 -0.473418 0.599216
-0.278481 -0.640506 0.514510
-0.287975 -0.321519 0.583529
-0.231013 -0.534177 0.539608
0.044304 -0.579747 0.608627
-0.382911 0.027848 0.561569
-0.145570 -0.017722 0.552157
0.015823 0.240506 0.480000
0.405063 0.027848 0.580392
-0.354430 -0.002532 0.574118
0.139241 -0.154430 0.627451
-0.031646 0.377215 0.668235
-0.231013 0.574684 0.495686
-0.221519 -0.488608 0.542745
0.082278 -0.427848 0.555294
0.063291 0.362025 0.630588
-0.287975 -0.367089 0.621176
-0.079114 0.058228 0.473725
-0.069620 0.149367 0.649412
-0.041139 0.301266 0.661961
0.443038 0.103797 0.574118
0.291139 0.012658 0.586667
-0.050633 0.027848 0.570980
0.376582 0.043038 0.586667
0.462025 0.194937 0.577255
-0.202532 0.118987 0.658824
0.338608 -0.078481 0.577255
0.025316 -0.382278 0.605490
-0.155063 -0.139241 0.649412
0.196203 0.179747 0.658824
0.376582 0.164557 0.577255
0.481013 0.134177 0.574118
-0.268987 -0.275949 0.589804
0.006329 -0.245570 0.624314
0.072785 0.650633 0.658824
-0.117089 0.270886 0.674510
-0.060127 0.422785 0.674510
0.101266 -0.093671 0.614902
-0.003165 0.437975 0.652549
-0.117089 -0.291139 0.652549
0.338608 -0.351899 0.495686
-0.316456 0.088608 0.602353
-0.259494 0.058228 0.326275
0.272152 -0.063291 0.583529
0.091772 -0.594937 0.570980
-0.240506 -0.427848 0.605490
0.025316 0.012658 0.517647
-0.088608 -0.534177 0.583529
0.376582 0.088608 0.586667
-0.117089 0.574684 0.668235
-0.231013 -0.093671 0.618039
-0.003165 0.270886 0.009412
-0.164557 -0.184810 0.658824
-0.117089 -0.351899 0.646275
0.338608 0.088608 0.586667
-0.060127 0.149367 0.621176
-0.250000 0.559494 0.592941
-0.145570 -0.184810 0.655686
-0.373418 0.118987 0.658824
0.034810 -0.078481 0.630588
0.044304 -0.321519 0.611765
-0.306962 0.589873 0.671373
0.319620 -0.108861 0.577255
-0.117089 0.529114 0.658824
0.063291 0.589873 0.640000
0.167722 -0.458228 0.163137
-0.250000 0.498734 0.611765
0.253165 0.741772 0.003137
0.072785 -0.215190 0.596078
-0.022152 0.331646 0.633725
-0.297468 -0.488608 0.567843
0.471519 0.118987 0.567843
-0.126582 0.027848 0.605490
-0.164557 0.468354 0.674510
-0.107595 0.210127 0.655686
0.405063 0.012658 0.577255
0.291139 -0.139241 0.561569
-0.022152 -0.124051 0.630588
-0.136076 -0.640506 0.401569
-0.069620 -0.549367 0.564706
0.025316 0.043038 0.561569
0.082278 0.468354 0.583529
0.139241 -0.032911 0.592941
-0.069620 0.574684 0.621176
-0.268987 -0.260760 0.592941
-0.117089 -0.503797 0.592941
0.110759 0.225316 0.294902
-0.250000 0.088608 0.313726
0.072785 -0.579747 0.602353
-0.278481 -0.686076 0.549020
-0.297468 0.088608 0.577255
0.215190 0.012658 0.436078
-0.278481 0.498734 0.633725
0.357595 0.027848 0.586667
-0.164557 -0.063291 0.586667
-0.136076 -0.473418 0.592941
-0.354430 -0.427848 0.668235
-0.335443 0.027848 0.646275
-0.003165 0.134177 0.614902
0.053797 -0.124051 0.621176
-0.221519 -0.640506 0.404706
-0.221519 0.194937 0.520784
0.082278 -0.670886 0.536471
0.243671 -0.367089 0.511373
-0.050633 -0.579747 0.533333
-0.316456 0.726582 0.687059
-0.145570 -0.321519 0.652549
0.386076 -0.154430 0.552157
0.291139 -0.351899 0.505098
-0.012658 -0.260760 0.621176
-0.117089 -0.048101 0.514510
0.139241 -0.488608 0.360784
-0.022152 -0.139241 0.636863
0.139241 0.043038 0.624314
0.196203 0.103797 0.636863
0.091772 -0.716456 0.398431
-0.278481 0.270886 0.680784
-0.155063 0.362025 0.680784
-0.250000 0.073418 0.304314
-0.268987 0.058228 0.545882
-0.069620 -0.412658 0.621176
0.082278 0.589873 0.627451
-0.250000 0.437975 0.652549
-0.117089 0.134177 0.633725
0.186709 0.027848 0.596078
-0.126582 -0.321519 0.652549
0.471519 0.027848 0.564706
-0.069620 0.012658 0.555294
-0.202532 0.164557 0.687059
-0.041139 -0.443038 0.605490
0.006329 -0.124051 0.633725
-0.231013 -0.579747 0.501961
-0.050633 0.362025 0.674510
0.376582 0.118987 0.586667
-0.117089 0.058228 0.643137
0.395570 0.088608 0.586667
-0.335443 -0.549367 0.592941
0.091772 -0.200000 0.574118
-0.259494 0.620253 0.630588
0.481013 0.270886 0.580392
0.110759 -0.443038 0.527059
0.262658 0.194937 0.621176
0.120253 -0.670886 0.436078
-0.060127 0.529114 0.646275
0.281646 -0.321519 0.520784
0.167722 0.088608 0.633725
-0.268987 0.908861 0.069020
-0.164557 0.149367 0.665098
-0.240506 -0.503797 0.574118
-0.041139 0.164557 0.633725
-0.079114 0.422785 0.674510
-0.050633 -0.716456 0.389020
0.471519 0.149367 0.574118
-0.088608 -0.397468 0.621176
0.101266 0.559494 0.483137
0.044304 0.316456 0.003137
0.443038 -0.124051 0.539608
0.215190 0.027848 0.530196
-0.145570 -0.093671 0.608627
0.006329 0.437975 0.652549
-0.306962 -0.002532 0.624314
-0.003165 -0.686076 0.567843
-0.164557 0.483544 0.674510
0.452532 -0.048101 0.567843
0.196203 -0.488608 0.153725
0.319620 0.027848 0.586667
-0.136076 0.422785 0.671373
-0.250000 0.255696 0.683922
0.158228 0.650633 0.624314
0.025316 0.483544 0.630588
-0.278481 -0.291139 0.555294
0.082278 0.331646 0.605490
-0.069620 0.103797 0.216471
0.329114 -0.200000 0.570980
0.139241 -0.078481 0.539608
-0.041139 -0.306329 0.627451
-0.041139 -0.473418 0.599216
-0.240506 0.756962 0.567843
-0.278481 -0.610127 0.464314
0.310127 -0.093671 0.580392
-0.250000 0.194937 0.665098
0.281646 -0.260760 0.530196
-0.174051 0.134177 0.665098
0.101266 -0.594937 0.545882
-0.325949 -0.048101 0.658824
0.224684 0.118987 0.624314
-0.373418 0.134177 0.652549
0.129747 0.118987 0.470588
-0.050633 0.058228 0.614902
-0.145570 -0.215190 0.661961
-0.297468 0.878481 0.150588
-0.126582 -0.579747 0.489412
0.167722 0.711392 0.683922
-0.031646 -0.215190 0.627451
0.025316 0.210127 0.646275
0.319620 -0.048101 0.586667
-0.060127 0.331646 0.661961
-0.250000 -0.260760 0.602353
-0.344937 0.073418 0.661961
-0.231013 0.696203 0.589804
-0.363924 -0.458228 0.671373
-0.012658 0.392405 0.668235
-0.250000 -0.443038 0.605490
0.167722 -0.078481 0.458039
-0.164557 -0.443038 0.583529
0.310127 0.012658 0.589804
0.281646 -0.351899 0.511373
0.063291 -0.215190 0.614902
0.148734 -0.017722 0.602353
0.006329 -0.807595 0.439216
-0.022152 0.103797 0.611765
-0.231013 0.164557 0.652549
-0.155063 -0.032911 0.549020
0.072785 0.422785 0.611765
0.101266 0.225316 0.301176
-0.098101 0.529114 0.658824
0.300633 -0.245570 0.539608
0.015823 -0.762025 0.398431
0.215190 0.058228 0.586667
-0.268987 -0.534177 0.580392
0.443038 0.270886 0.655686
-0.107595 -0.048101 0.511373
0.167722 -0.017722 0.567843
0.053797 -0.063291 0.621176
0.120253 -0.564557 0.527059
0.034810 0.027848 0.527059
0.158228 -0.063291 0.508235
0.129747 -0.260760 0.517647
-0.079114 0.088608 0.225882
-0.079114 0.346835 0.668235
-0.050633 0.088608 0.520784
0.177215 -0.002532 0.577255
0.082278 -0.002532 0.608627
-0.183544 -0.610127 0.385882
-0.202532 0.529114 0.649412
-0.354430 0.088608 0.658824
-0.060127 -0.427848 0.611765
-0.022152 0.559494 0.611765
-0.107595 -0.564557 0.536471
-0.098101 0.453165 0.674510
0.443038 0.134177 0.567843
0.091772 -0.002532 0.592941
0.072785 -0.503797 0.570980
-0.287975 0.817722 0.006275
0.490506 0.316456 0.643137
0.424051 0.043038 0.577255
-0.079114 0.012658 0.564706
-0.344937 -0.488608 0.602353
-0.287975 -0.655696 0.592941
-0.240506 0.437975 0.655686
0.129747 -0.215190 0.514510
-0.031646 0.210127 0.646275
0.044304 -0.169620 0.614902
-0.250000 -0.397468 0.602353
-0.174051 -0.108861 0.633725
0.101266 -0.139241 0.592941
-0.031646 0.544304 0.633725
0.424051 0.225316 0.580392
0.110759 0.255696 0.555294
-0.107595 0.316456 0.674510
0.139241 0.073418 0.611765
0.234177 -0.154430 0.536471
-0.041139 -0.078481 0.602353
0.063291 0.043038 0.511373
-0.183544 -0.549367 0.454902
0.091772 -0.291139 0.545882
-0.069620 0.270886 0.671373
-0.240506 0.225316 0.658824
-0.079114 -0.306329 0.640000
0.101266 0.027848 0.586667
-0.278481 -0.336709 0.574118
-0.278481 0.908861 0.006275
-0.117089 -0.275949 0.655686
-0.335443 0.012658 0.627451
0.120253 -0.093671 0.574118
-0.126582 0.468354 0.674510
0.148734 0.088608 0.618039
0.196203 -0.367089 0.501961
0.110759 0.012658 0.602353
0.044304 0.286076 0.006275
0.338608 0.027848 0.589804
-0.344937 0.103797 0.649412
-0.278481 0.073418 0.558431
0.044304 -0.291139 0.611765
-0.250000 -0.200000 0.618039
-0.088608 0.286076 0.668235
0.386076 0.027848 0.589804
0.224684 0.240506 0.596078
-0.050633 0.346835 0.665098
-0.012658 -0.367089 0.605490
-0.363924 0.073418 0.658824
0.082278 -0.200000 0.589804
-0.325949 -0.443038 0.621176
-0.212025 -0.230380 0.646275
-0.164557 0.513924 0.661961
-0.079114 -0.108861 0.633725
0.110759 -0.215190 0.498824
-0.155063 -0.275949 0.655686
-0.164557 -0.655696 0.618039
0.044304 -0.367089 0.596078
0.006329 -0.716456 0.520784
0.300633 -0.032911 0.586667
-0.155063 -0.078481 0.602353
-0.183544 0.103797 0.649412
0.253165 -0.275949 0.577255
0.386076 0.179747 0.577255
-0.259494 -0.260760 0.580392
0.177215 0.012658 0.602353
-0.003165 0.392405 0.643137
0.025316 0.468354 0.636863
0.186709 0.073418 0.621176
0.034810 -0.549367 0.592941
-0.041139 0.483544 0.652549
0.272152 -0.306329 0.523922
-0.117089 -0.245570 0.655686
-0.212025 0.407595 0.680784
0.186709 0.194937 0.542745
-0.079114 -0.063291 0.545882
0.082278 -0.215190 0.589804
-0.041139 0.058228 0.608627
0.405063 0.118987 0.583529
0.148734 0.103797 0.618039
-0.212025 0.377215 0.680784
-0.202532 0.240506 0.006275
-0.202532 0.058228 0.429804
0.481013 -0.017722 0.586667
0.006329 -0.822785 0.461176
0.148734 -0.063291 0.523922
0.338608 -0.367089 0.523922
-0.088608 -0.048101 0.505098
0.034810 0.316456 0.003137
-0.098101 0.149367 0.658824
-0.287975 -0.518987 0.545882
-0.174051 -0.336709 0.633725
0.110759 0.589873 0.567843
-0.003165 0.346835 0.069020
0.424051 -0.002532 0.580392
-0.136076 -0.594937 0.442353
0.072785 0.149367 0.285490
-0.250000 0.407595 0.665098
-0.145570 -0.503797 0.558431
0.462025 0.270886 0.580392
-0.221519 -0.594937 0.467451
0.139241 -0.564557 0.712157
0.015823 0.559494 0.570980
-0.354430 0.027848 0.633725
-0.306962 -0.397468 0.649412
0.101266 0.362025 0.574118
0.082278 -0.048101 0.618039
-0.079114 0.255696 0.671373
0.196203 -0.032911 0.633725
-0.136076 -0.245570 0.658824
0.015823 -0.473418 0.586667
0.129747 -0.625316 0.495686
0.215190 -0.124051 0.423529
-0.107595 -0.154430 0.655686
0.110759 -0.670886 0.445490
-0.098101 -0.124051 0.643137
-0.041139 -0.534177 0.570980
0.006329 0.483544 0.643137
-0.212025 0.301266 0.012549
0.044304 -0.427848 0.589804
0.082278 -0.321519 0.558431
-0.012658 -0.093671 0.624314
-0.287975 -0.443038 0.624314
-0.041139 0.559494 0.640000
0.367089 -0.169620 0.586667
0.462025 -0.078481 0.552157
-0.107595 -0.078481 0.589804
-0.012658 0.058228 0.580392
0.243671 -0.139241 0.558431
-0.164557 -0.048101 0.545882
-0.268987 0.544304 0.655686
0.139241 0.088608 0.621176
0.129747 0.635443 0.633725
-0.079114 -0.139241 0.646275
-0.240506 -0.108861 0.624314
0.262658 -0.306329 0.508235
-0.250000 -0.108861 0.618039
-0.231013 -0.139241 0.640000
0.006329 -0.427848 0.605490
0.006329 0.286076 0.003137
0.120253 -0.625316 0.454902
0.329114 0.027848 0.589804
-0.136076 0.225316 0.677647
0.158228 -0.017722 0.586667
-0.164557 0.073418 0.618039
0.110759 0.605063 0.614902
0.053797 0.331646 0.523922
-0.098101 -0.321519 0.643137
-0.250000 0.620253 0.586667
0.177215 -0.518987 0.128627
-0.098101 -0.336709 0.636863
-0.268987 0.498734 0.658824
0.101266 0.088608 0.263529
-0.012658 0.225316 0.649412
0.072785 -0.686076 0.539608
-0.202532 -0.518987 0.495686
0.015823 -0.837975 0.420392
-0.202532 -0.002532 0.555294
-0.344937 -0.002532 0.605490
-0.354430 0.134177 0.636863
-0.069620 0.164557 0.643137
-0.392405 0.118987 0.671373
-0.221519 0.043038 0.285490
-0.183544 -0.169620 0.655686
-0.098101 -0.260760 0.652549
0.310127 -0.184810 0.561569
0.053797 0.529114 0.523922
0.348101 -0.048101 0.586667
0.025316 0.407595 0.649412
-0.297468 0.559494 0.668235
0.272152 -0.245570 0.530196
0.006329 -0.594937 0.596078
-0.003165 -0.336709 0.611765
-0.250000 0.802532 0.087843
0.101266 -0.564557 0.558431
0.405063 0.058228 0.580392
-0.098101 0.407595 0.674510
-0.193038 0.225316 0.003137
-0.031646 -0.078481 0.599216
0.405063 -0.017722 0.580392
-0.297468 -0.458228 0.608627
0.044304 0.377215 0.636863
0.424051 -0.048101 0.567843
-0.145570 0.407595 0.671373
0.044304 -0.594937 0.608627
0.006329 0.088608 0.592941
-0.088608 0.498734 0.671373
-0.183544 -0.306329 0.640000
-0.363924 0.164557 0.649412
0.025316 -0.488608 0.586667
0.253165 -0.184810 0.533333
-0.259494 -0.594937 0.508235
-0.050633 -0.048101 0.517647
0.101266 -0.610127 0.533333
0.025316 0.301266 0.000000
0.158228 0.103797 0.627451
-0.325949 0.073418 0.633725
-0.012658 0.012658 0.539608
0.091772 0.422785 0.596078
-0.221519 -0.093671 0.614902
0.310127 -0.063291 0.583529
0.034810 0.453165 0.630588
0.139241 0.027848 0.608627
-0.268987 0.620253 0.652549
-0.012658 -0.427848 0.608627
0.357595 -0.124051 0.577255
-0.212025 -0.488608 0.523922
-0.079114 0.331646 0.677647
0.006329 0.498734 0.633725
-0.126582 -0.412658 0.618039
-0.325949 -0.549367 0.592941
-0.212025 -0.154430 0.643137
-0.145570 -0.245570 0.658824
0.243671 0.164557 0.646275
-0.268987 -0.488608 0.599216
0.063291 0.103797 0.294902
0.367089 0.043038 0.589804
-0.325949 -0.503797 0.505098
0.253165 0.225316 0.646275
-0.079114 -0.260760 0.649412
0.300633 -0.093671 0.580392
-0.193038 0.270886 0.360784
0.110759 -0.230380 0.492549
-0.306962 -0.351899 0.611765
0.376582 0.012658 0.589804
-0.050633 -0.260760 0.636863
0.082278 -0.594937 0.589804
0.053797 0.605063 0.630588
-0.050633 -0.367089 0.621176
0.148734 -0.443038 0.370196
0.034810 -0.762025 0.385882
0.224684 0.665823 0.517647
0.205696 0.149367 0.655686
0.414557 -0.154430 0.696471
0.414557 0.058228 0.580392
0.367089 -0.002532 0.586667
-0.069620 -0.321519 0.630588
-0.060127 0.498734 0.661961
-0.060127 0.346835 0.671373
-0.212025 -0.670886 0.690196
0.443038 0.088608 0.574118
0.262658 0.741772 0.000000
-0.221519 -0.260760 0.621176
-0.050633 -0.458228 0.605490
-0.193038 -0.260760 0.649412
0.281646 -0.275949 0.527059
0.405063 0.103797 0.577255
0.044304 -0.154430 0.614902
0.082278 0.377215 0.599216
-0.136076 -0.306329 0.655686
0.272152 -0.200000 0.539608
0.452532 0.225316 0.580392
-0.107595 0.574684 0.636863
-0.259494 0.255696 0.665098
-0.240506 0.711392 0.545882
0.281646 0.149367 0.586667
0.063291 -0.488608 0.570980
0.186709 0.756962 0.640000
0.053797 0.422785 0.627451
0.110759 0.620253 0.630588
0.205696 0.635443 0.439216
0.034810 0.286076 0.003137
0.291139 0.043038 0.580392
0.158228 -0.351899 0.348235
-0.041139 -0.594937 0.527059
-0.287975 0.620253 0.668235
-0.136076 -0.518987 0.545882
-0.278481 0.012658 0.602353
0.091772 -0.048101 0.614902
-0.259494 0.605063 0.630588
-0.221519 -0.625316 0.423529
-0.259494 -0.458228 0.608627
-0.278481 0.848101 0.000000
0.072785 -0.731646 0.439216
-0.069620 -0.017722 0.511373
0.471519 -0.002532 0.567843
-0.012658 0.134177 0.605490
-0.250000 -0.230380 0.605490
-0.363924 0.043038 0.643137
-0.164557 0.422785 0.677647
0.015823 0.194937 0.636863
-0.022152 -0.093671 0.621176
-0.240506 0.696203 0.549020
-0.145570 0.468354 0.671373
-0.240506 0.362025 0.680784
0.120253 0.286076 0.618039
0.053797 0.483544 0.599216
0.063291 0.468354 0.614902
0.025316 -0.518987 0.583529
-0.050633 -0.731646 0.693333
0.006329 0.164557 0.630588
-0.193038 0.149367 0.671373
0.243671 -0.017722 0.586667
0.072785 -0.655696 0.580392
0.310127 -0.336709 0.517647
0.025316 -0.321519 0.614902
-0.259494 0.650633 0.627451
-0.373418 -0.503797 0.596078
-0.088608 -0.200000 0.658824
0.205696 -0.397468 0.501961
0.072785 0.286076 0.627451
-0.050633 0.134177 0.473725
-0.221519 -0.443038 0.555294
-0.145570 -0.579747 0.445490
0.006329 -0.230380 0.624314
-0.287975 -0.686076 0.564706
0.471519 0.240506 0.577255
-0.335443 0.103797 0.630588
-0.268987 0.483544 0.640000
-0.174051 0.179747 0.677647
-0.174051 0.058228 0.621176
0.215190 0.043038 0.555294
0.053797 0.088608 0.586667
-0.126582 0.270886 0.677647
0.082278 0.270886 0.621176
0.262658 0.726582 0.000000
-0.268987 0.164557 0.414118
-0.050633 -0.230380 0.643137
-0.268987 0.407595 0.740392
0.329114 -0.108861 0.580392
-0.060127 -0.351899 0.621176
0.196203 -0.518987 0.200784
-0.316456 0.027848 0.636863
-0.031646 -0.200000 0.633725
-0.212025 -0.625316 0.410980
-0.259494 0.589873 0.624314
-0.354430 -0.473418 0.621176
0.243671 0.650633 0.567843
-0.117089 0.210127 0.665098
-0.259494 0.043038 0.501961
-0.344937 0.012658 0.599216
0.120253 -0.032911 0.605490
0.443038 0.179747 0.577255
-0.145570 0.574684 0.652549
-0.212025 0.225316 0.006275
-0.297468 -0.640506 0.583529
-0.268987 0.863291 0.003137
-0.193038 -0.610127 0.407843
0.015823 0.331646 0.721569
0.091772 0.331646 0.592941
0.300633 -0.367089 0.501961
-0.287975 0.103797 0.511373
-0.268987 0.286076 0.655686
-0.117089 -0.184810 0.652549
-0.325949 -0.397468 0.649412
-0.050633 -0.640506 0.486275
-0.268987 -0.443038 0.614902
-0.022152 0.346835 0.658824
0.443038 -0.048101 0.564706
0.338608 -0.245570 0.555294
-0.297468 -0.367089 0.627451
-0.155063 0.073418 0.614902
-0.041139 -0.139241 0.640000
-0.012658 -0.275949 0.618039
0.082278 0.179747 0.288627
0.044304 -0.807595 0.417255
0.158228 -0.108861 0.652549
0.205696 -0.473418 0.260392
0.091772 -0.397468 0.539608
-0.117089 0.088608 0.257255
-0.183544 0.149367 0.677647
0.310127 0.772152 0.006275
-0.278481 0.559494 0.661961
-0.117089 -0.002532 0.558431
0.025316 0.118987 0.602353
0.129747 0.179747 0.574118
-0.174051 -0.032911 0.549020
-0.259494 0.529114 0.633725
0.405063 -0.093671 0.574118
-0.012658 -0.108861 0.636863
0.015823 0.286076 0.009412
-0.088608 0.422785 0.674510
-0.022152 -0.610127 0.561569
-0.031646 -0.686076 0.492549
-0.041139 0.012658 0.536471
-0.003165 -0.549367 0.570980
-0.031646 0.043038 0.577255
0.452532 0.088608 0.574118
0.490506 0.240506 0.611765
0.158228 -0.443038 0.144314
0.072785 -0.321519 0.570980
-0.202532 0.043038 0.417255
0.006329 0.331646 0.737255
0.101266 0.134177 0.244706
0.034810 -0.640506 0.608627
0.253165 -0.245570 0.395294
-0.098101 0.118987 0.175686
-0.240506 0.741772 0.542745
-0.003165 -0.716456 0.505098
-0.193038 0.422785 0.674510
-0.050633 0.012658 0.545882
0.148734 0.681013 0.680784
-0.069620 -0.625316 0.476863
-0.022152 -0.473418 0.602353
-0.259494 -0.124051 0.614902
-0.050633 0.559494 0.640000
0.006329 -0.518987 0.574118
0.424051 0.194937 0.589804
0.148734 -0.002532 0.605490
-0.287975 0.012658 0.611765
0.025316 -0.245570 0.621176
0.490506 0.164557 0.655686
0.300633 -0.139241 0.570980
0.234177 -0.093671 0.567843
0.091772 -0.473418 0.549020
0.196203 0.741772 0.687059
-0.164557 0.286076 0.668235
0.091772 0.407595 0.580392
0.006329 -0.063291 0.611765
0.110759 -0.093671 0.592941
0.072785 -0.746835 0.376471
0.452532 0.240506 0.580392
0.120253 0.240506 0.520784
0.044304 0.149367 0.611765
-0.022152 -0.503797 0.580392
0.158228 -0.518987 0.116078
-0.174051 -0.503797 0.492549
-0.022152 -0.078481 0.605490
-0.136076 0.407595 0.674510
0.006329 -0.837975 0.514510
0.177215 0.696203 0.674510
0.120253 -0.488608 0.539608
-0.098101 -0.534177 0.580392
-0.050633 0.179747 0.655686
-0.259494 -0.564557 0.542745
-0.155063 -0.382278 0.614902
-0.069620 0.331646 0.674510
0.186709 0.650633 0.580392
0.025316 -0.625316 0.605490
-0.031646 0.453165 0.658824
0.196203 0.681013 0.633725
-0.126582 -0.230380 0.658824
-0.231013 -0.260760 0.608627
-0.183544 0.255696 0.003137
-0.325949 -0.412658 0.646275
0.177215 -0.473418 0.134902
-0.212025 -0.124051 0.633725
-0.012658 -0.686076 0.539608
0.015823 -0.853165 0.436078
0.063291 -0.108861 0.624314
0.386076 0.149367 0.583529
-0.050633 0.468354 0.665098
-0.088608 -0.518987 0.592941
0.025316 -0.610127 0.605490
-0.031646 0.362025 0.661961
-0.088608 0.362025 0.674510
-0.202532 -0.169620 0.652549
0.196203 -0.017722 0.442353
-0.012658 0.377215 0.671373
-0.031646 -0.017722 0.505098
0.053797 -0.139241 0.618039
0.063291 -0.321519 0.586667
0.063291 0.529114 0.505098
-0.079114 -0.518987 0.589804
-0.060127 -0.184810 0.643137
-0.164557 -0.336709 0.646275
0.072785 0.407595 0.608627
-0.136076 0.301266 0.677647
-0.363924 0.088608 0.658824
0.215190 -0.321519 0.508235
-0.212025 0.316456 0.006275
-0.117089 -0.093671 0.605490
0.015823 0.529114 0.621176
-0.088608 -0.579747 0.523922
-0.003165 -0.245570 0.621176
-0.003165 -0.670886 0.583529
0.120253 0.043038 0.608627
-0.221519 -0.549367 0.511373
0.329114 -0.078481 0.580392
0.129747 -0.412658 0.498824
0.082278 0.392405 0.599216
-0.240506 0.665823 0.523922
-0.117089 0.437975 0.674510
0.015823 -0.032911 0.580392
0.177215 -0.336709 0.495686
-0.079114 0.164557 0.655686
0.462025 0.210127 0.577255
0.215190 -0.306329 0.498824
-0.003165 -0.701266 0.539608
-0.145570 0.073418 0.627451
-0.240506 -0.579747 0.508235
0.015823 0.103797 0.602353
-0.231013 -0.443038 0.586667
0.348101 0.012658 0.586667
0.291139 -0.306329 0.520784
0.158228 -0.427848 0.125490
0.443038 -0.063291 0.564706
-0.174051 0.407595 0.677647
0.006329 -0.215190 0.621176
-0.126582 -0.518987 0.570980
-0.069620 0.513924 0.658824
-0.183544 -0.488608 0.498824
0.025316 0.194937 0.646275
-0.259494 -0.579747 0.523922
-0.012658 0.240506 0.643137
0.348101 0.134177 0.577255
-0.250000 0.544304 0.602353
0.101266 0.422785 0.652549
-0.316456 0.665823 0.677647
0.158228 0.620253 0.549020
-0.126582 0.498734 0.671373
-0.174051 0.346835 0.677647
0.015823 -0.686076 0.580392
0.034810 0.301266 0.009412
-0.183544 -0.017722 0.564706
-0.250000 -0.412658 0.602353
0.186709 -0.518987 0.134902
0.319620 0.058228 0.592941
0.015823 -0.336709 0.614902
-0.268987 0.802532 0.702745
-0.003165 -0.382278 0.611765
-0.079114 0.377215 0.674510
0.224684 -0.124051 0.539608
0.044304 -0.063291 0.621176
0.405063 -0.078481 0.577255
-0.240506 0.073418 0.298039
-0.306962 -0.579747 0.611765
-0.316456 -0.351899 0.627451
-0.060127 0.210127 0.640000
-0.145570 0.012658 0.599216
-0.088608 0.103797 0.216471
0.034810 0.118987 0.599216
-0.240506 -0.230380 0.614902
0.253165 -0.291139 0.517647
-0.031646 -0.169620 0.640000
-0.250000 -0.594937 0.501961
0.082278 0.286076 0.621176
-0.164557 0.498734 0.671373
0.405063 -0.124051 0.561569
0.091772 -0.488608 0.558431
0.015823 0.164557 0.630588
0.101266 0.058228 0.530196
-0.193038 -0.367089 0.555294
0.224684 -0.063291 0.570980
0.053797 -0.184810 0.621176
-0.268987 -0.139241 0.596078
-0.022152 0.134177 0.608627
0.215190 0.696203 0.633725
-0.003165 -0.731646 0.461176
-0.297468 -0.594937 0.577255
-0.174051 0.164557 0.674510
-0.012658 -0.048101 0.555294
0.101266 -0.002532 0.605490
-0.278481 -0.670886 0.545882
-0.126582 -0.184810 0.655686
0.224684 -0.412658 0.699608
0.329114 -0.351899 0.520784
-0.202532 -0.200000 0.652549
-0.183544 -0.184810 0.646275
0.395570 0.179747 0.580392
-0.287975 -0.503797 0.574118
-0.155063 0.149367 0.665098
0.329114 -0.063291 0.583529
0.044304 0.346835 0.125490
0.215190 0.665823 0.580392
0.433544 -0.017722 0.567843
0.205696 0.711392 0.674510
0.082278 0.407595 0.596078
-0.268987 0.893671 0.009412
0.015823 -0.184810 0.621176
-0.164557 0.027848 0.602353
0.091772 -0.306329 0.545882
0.044304 0.073418 0.558431
0.044304 0.194937 0.624314
-0.344937 -0.594937 0.640000
0.110759 -0.625316 0.489412
0.129747 -0.275949 0.492549
0.433544 0.058228 0.580392
0.395570 -0.124051 0.564706
-0.287975 0.483544 0.627451
-0.193038 0.210127 0.065882
-0.250000 -0.427848 0.608627
0.262658 0.772152 0.003137
-0.212025 0.118987 0.567843
-0.069620 -0.124051 0.643137
0.072785 0.073418 0.232157
0.148734 -0.108861 0.414118
-0.202532 0.301266 0.693333
-0.012658 -0.610127 0.586667
-0.126582 -0.306329 0.649412
-0.278481 0.772152 0.674510
-0.117089 -0.640506 0.410980
-0.268987 -0.503797 0.589804
0.015823 -0.716456 0.536471
-0.022152 -0.716456 0.442353
0.357595 0.058228 0.589804
-0.297468 0.756962 0.690196
-0.012658 -0.579747 0.567843
-0.240506 0.027848 0.294902
-0.098101 0.559494 0.646275
0.319620 -0.275949 0.536471
0.063291 -0.564557 0.614902
-0.212025 0.043038 0.313726
0.053797 0.179747 0.640000
0.367089 0.118987 0.586667
0.015823 -0.291139 0.621176
0.025316 0.179747 0.636863
0.405063 0.088608 0.577255
-0.012658 -0.670886 0.552157
0.015823 0.027848 0.536471
0.015823 -0.260760 0.618039
-0.079114 0.149367 0.671373
0.338608 0.073418 0.599216
0.310127 0.058228 0.586667
0.148734 0.134177 0.564706
0.129747 0.240506 0.724706
-0.041139 0.437975 0.665098
0.129747 0.012658 0.608627
0.053797 -0.731646 0.476863
-0.278481 -0.048101 0.608627
-0.212025 -0.443038 0.533333
0.196203 0.088608 0.627451
0.148734 -0.503797 0.125490
-0.126582 0.559494 0.649412
-0.240506 0.605063 0.505098
-0.003165 0.255696 0.621176
0.120253 -0.686076 0.542745
0.025316 0.422785 0.646275
0.462025 0.088608 0.570980
-0.136076 0.346835 0.677647
0.243671 0.134177 0.614902
-0.050633 0.483544 0.658824
-0.079114 0.468354 0.671373
-0.297468 -0.534177 0.483137
0.063291 -0.169620 0.624314
-0.335443 -0.382278 0.652549
0.386076 0.134177 0.586667
-0.060127 0.453165 0.671373
0.091772 0.027848 0.564706
-0.202532 0.149367 0.677647
0.405063 -0.002532 0.574118
0.006329 0.559494 0.661961
-0.193038 0.468354 0.674510
0.281646 0.726582 0.000000
0.262658 -0.321519 0.527059
0.205696 -0.458228 0.451765
-0.287975 0.605063 0.668235
0.281646 0.027848 0.586667
-0.088608 0.437975 0.674510
-0.079114 0.544304 0.640000
-0.117089 0.483544 0.671373
0.120253 0.210127 0.294902
0.044304 0.164557 0.618039
0.072785 -0.625316 0.596078
-0.079114 -0.488608 0.602353
-0.164557 -0.488608 0.517647
-0.022152 -0.458228 0.605490
0.253165 0.149367 0.636863
-0.240506 -0.154430 0.630588
-0.069620 -0.169620 0.649412
0.044304 0.574684 0.621176
0.215190 0.681013 0.633725
-0.183544 -0.154430 0.643137
-0.050633 0.498734 0.652549
0.044304 0.453165 0.627451
0.034810 -0.716456 0.542745
0.034810 -0.139241 0.627451
0.405063 0.149367 0.583529
-0.231013 0.726582 0.680784
-0.221519 -0.275949 0.608627
-0.126582 -0.564557 0.508235
-0.250000 0.149367 0.345098
-0.126582 -0.063291 0.558431
0.072785 0.574684 0.614902
0.291139 -0.169620 0.561569
-0.287975 -0.291139 0.605490
-0.031646 -0.336709 0.621176
-0.164557 0.301266 0.668235
0.072785 -0.564557 0.605490
0.272152 0.787342 0.094118
-0.012658 -0.443038 0.605490
-0.031646 0.559494 0.636863
-0.231013 -0.397468 0.577255
0.177215 0.681013 0.658824
0.072785 -0.443038 0.564706
-0.060127 -0.670886 0.423529
0.053797 0.513924 0.508235
0.120253 0.012658 0.605490
-0.240506 -0.017722 0.580392
-0.041139 -0.686076 0.458039
-0.164557 -0.503797 0.511373
0.186709 0.696203 0.668235
0.376582 -0.108861 0.574118
0.367089 0.088608 0.589804
0.376582 0.058228 0.589804
-0.174051 -0.124051 0.643137
0.300633 -0.154430 0.567843
-0.155063 -0.579747 0.429804
0.376582 -0.063291 0.580392
-0.069620 -0.458228 0.608627
-0.250000 -0.048101 0.599216
-0.240506 0.331646 0.658824
0.310127 -0.002532 0.589804
0.262658 0.210127 0.658824
0.006329 -0.670886 0.592941
0.310127 -0.078481 0.580392
-0.079114 -0.427848 0.614902
-0.174051 -0.397468 0.589804
0.044304 0.134177 0.618039
-0.259494 0.240506 0.661961
0.424051 -0.078481 0.564706
-0.022152 0.377215 0.665098
-0.287975 0.696203 0.665098
-0.250000 0.483544 0.611765
0.186709 0.665823 0.627451
-0.069620 -0.291139 0.636863
0.063291 -0.701266 0.533333
0.044304 -0.746835 0.429804
0.253165 0.681013 0.000000
0.091772 0.225316 0.313726
0.462025 0.164557 0.577255
0.272152 0.027848 0.570980
-0.155063 -0.443038 0.596078
0.167722 0.574684 0.668235
-0.155063 0.331646 0.677647
0.082278 0.665823 0.655686
0.310127 0.103797 0.724706
0.044304 0.027848 0.511373
-0.041139 -0.260760 0.627451
0.186709 0.043038 0.614902
-0.183544 -0.640506 0.351373
-0.278481 0.574684 0.668235
-0.098101 0.377215 0.674510
0.025316 -0.640506 0.605490
0.234177 0.665823 0.003137
-0.278481 -0.397468 0.649412
-0.193038 -0.443038 0.514510
0.367089 0.164557 0.592941
-0.098101 0.468354 0.671373
-0.259494 -0.063291 0.608627
0.300633 -0.230380 0.545882
-0.164557 -0.275949 0.661961
0.044304 -0.731646 0.492549
-0.098101 -0.048101 0.511373
0.044304 0.043038 0.542745
-0.003165 -0.443038 0.602353
-0.363924 0.179747 0.577255
0.186709 0.681013 0.649412
0.034810 -0.458228 0.586667
0.006329 -0.367089 0.605490
0.310127 -0.291139 0.533333
-0.240506 -0.002532 0.564706
0.025316 0.058228 0.567843
-0.041139 0.377215 0.677647
-0.202532 -0.078481 0.602353
-0.126582 0.346835 0.674510
0.025316 -0.549367 0.589804
0.044304 -0.215190 0.611765
0.025316 -0.048101 0.611765
0.291139 -0.108861 0.574118
-0.212025 0.088608 0.285490
0.034810 -0.594937 0.611765
0.129747 0.194937 0.599216
-0.306962 -0.321519 0.618039
-0.031646 0.179747 0.643137
-0.373418 0.058228 0.652549
0.034810 0.270886 0.003137
-0.240506 0.468354 0.633725
-0.060127 0.058228 0.608627
0.414557 0.225316 0.599216
0.044304 -0.200000 0.614902
-0.231013 -0.473418 0.574118
0.329114 -0.306329 0.533333
0.262658 -0.230380 0.520784
0.291139 -0.093671 0.574118
-0.202532 -0.351899 0.517647
-0.250000 0.787342 0.655686
-0.297468 0.832911 0.003137
0.091772 -0.382278 0.536471
0.006329 -0.002532 0.514510
0.205696 0.118987 0.636863
-0.041139 -0.351899 0.624314
0.082278 0.605063 0.652549
0.101266 0.650633 0.674510
-0.183544 0.362025 0.680784
-0.202532 -0.245570 0.646275
-0.202532 -0.306329 0.608627
-0.022152 -0.032911 0.514510
-0.202532 0.286076 0.721569
0.452532 0.149367 0.570980
-0.259494 -0.154430 0.608627
-0.088608 0.453165 0.671373
-0.060127 0.103797 0.185098
0.167722 0.696203 0.680784
-0.088608 0.179747 0.671373
-0.050633 -0.610127 0.508235
0.082278 -0.625316 0.580392
-0.031646 -0.032911 0.498824
-0.155063 0.164557 0.674510
0.034810 -0.169620 0.624314
-0.221519 0.210127 0.003137
0.063291 0.149367 0.313726
0.091772 -0.139241 0.611765
0.120253 -0.503797 0.542745
0.034810 0.574684 0.592941
0.186709 -0.351899 0.492549
0.034810 -0.382278 0.602353
-0.126582 0.194937 0.674510
-0.145570 -0.625316 0.395294
0.072785 -0.382278 0.564706
-0.174051 -0.291139 0.646275
-0.117089 -0.230380 0.655686
-0.050633 -0.093671 0.614902
0.091772 0.255696 0.602353
-0.335443 -0.473418 0.586667
-0.174051 -0.443038 0.552157
-0.231013 -0.291139 0.570980
-0.003165 -0.412658 0.608627
-0.041139 -0.579747 0.539608
0.224684 0.756962 0.702745
0.120253 0.544304 0.348235
-0.003165 0.377215 0.658824
0.215190 0.118987 0.636863
0.433544 0.027848 0.574118
-0.231013 -0.549367 0.523922
0.015823 -0.579747 0.602353
-0.297468 -0.518987 0.505098
0.310127 0.741772 0.542745
-0.278481 0.620253 0.668235
-0.060127 -0.640506 0.473725
-0.164557 0.088608 0.624314
-0.250000 0.726582 0.602353
-0.240506 0.012658 0.492549
-0.164557 0.225316 0.674510
-0.174051 -0.184810 0.652549
0.082278 0.650633 0.655686
-0.259494 -0.230380 0.599216
0.063291 0.164557 0.291765
0.006329 0.392405 0.649412
-0.287975 -0.610127 0.530196
-0.287975 0.544304 0.668235
-0.316456 -0.625316 0.577255
-0.212025 -0.048101 0.589804
-0.098101 -0.382278 0.627451
0.205696 0.027848 0.558431
-0.231013 -0.367089 0.558431
0.053797 -0.701266 0.549020
0.386076 -0.002532 0.583529
0.091772 0.240506 0.420392
0.177215 0.589873 0.486275
0.082278 -0.093671 0.621176
-0.278481 0.650633 0.668235
-0.268987 -0.078481 0.605490
-0.202532 -0.291139 0.618039
0.177215 0.756962 0.636863
0.139241 0.650633 0.649412
-0.088608 0.407595 0.674510
0.177215 -0.534177 0.238431
-0.031646 0.331646 0.665098
0.300633 -0.184810 0.558431
-0.098101 -0.670886 0.379608
0.319620 -0.215190 0.549020
-0.069620 -0.351899 0.627451
-0.155063 -0.503797 0.530196
0.072785 0.088608 0.250980
-0.240506 -0.610127 0.476863
0.348101 0.043038 0.589804
-0.202532 -0.610127 0.417255
-0.107595 -0.443038 0.608627
0.053797 -0.655696 0.605490
0.044304 -0.792405 0.398431
0.053797 -0.078481 0.621176
0.177215 0.665823 0.630588
-0.325949 0.149367 0.589804
0.101266 -0.184810 0.552157
-0.060127 -0.230380 0.646275
0.025316 0.362025 0.006275
-0.183544 0.377215 0.677647
-0.088608 0.270886 0.674510
0.395570 -0.017722 0.580392
-0.098101 -0.579747 0.511373
-0.155063 0.179747 0.677647
-0.250000 -0.367089 0.577255
0.443038 0.225316 0.577255
-0.183544 -0.458228 0.517647
-0.278481 -0.321519 0.567843
-0.041139 0.179747 0.640000
0.091772 0.529114 0.354510
-0.297468 0.118987 0.505098
-0.183544 0.392405 0.677647
0.243671 0.088608 0.539608
-0.240506 0.483544 0.611765
0.234177 -0.351899 0.505098
-0.183544 0.118987 0.649412
0.281646 0.756962 0.000000
-0.107595 0.058228 0.621176
-0.107595 -0.594937 0.495686
-0.050633 0.316456 0.668235
-0.268987 0.027848 0.583529
0.291139 0.787342 0.031373
0.101266 -0.549367 0.564706
-0.183544 0.043038 0.608627
-0.306962 0.544304 0.640000
-0.031646 -0.746835 0.592941
0.091772 -0.093671 0.614902
-0.117089 -0.579747 0.492549
-0.012658 0.118987 0.614902
0.367089 0.179747 0.696471
0.082278 0.346835 0.605490
0.186709 -0.503797 0.156863
0.015823 -0.868354 0.442353
0.063291 0.407595 0.627451
0.110759 -0.275949 0.501961
-0.287975 0.574684 0.668235
-0.259494 -0.351899 0.574118
-0.069620 0.301266 0.668235
-0.060127 0.043038 0.605490
-0.031646 -0.670886 0.514510
-0.316456 0.756962 0.131765
0.424051 0.164557 0.580392
0.471519 -0.048101 0.564706
-0.136076 0.483544 0.671373
-0.287975 0.848101 0.003137
0.291139 -0.321519 0.517647
-0.060127 -0.443038 0.608627
-0.202532 -0.534177 0.486275
-0.183544 0.164557 0.680784
0.234177 -0.336709 0.505098
0.015823 0.073418 0.583529
-0.354430 -0.564557 0.599216
-0.212025 -0.382278 0.533333
-0.193038 -0.306329 0.618039
0.462025 0.149367 0.577255
0.015823 -0.200000 0.621176
-0.012658 0.103797 0.611765
0.101266 -0.367089 0.527059
0.253165 -0.154430 0.555294
-0.250000 -0.169620 0.618039
0.215190 0.741772 0.699608
0.034810 -0.184810 0.621176
-0.145570 -0.640506 0.395294
0.110759 -0.518987 0.549020
0.186709 -0.017722 0.511373
0.348101 0.118987 0.592941
-0.250000 0.179747 0.561569
0.091772 0.362025 0.589804
-0.041139 -0.564557 0.549020
-0.193038 -0.078481 0.608627
0.300633 0.043038 0.589804
0.291139 0.756962 0.012549
0.291139 -0.245570 0.536471
0.205696 0.665823 0.592941
-0.060127 -0.336709 0.627451
-0.069620 -0.518987 0.589804
-0.212025 -0.503797 0.517647
-0.117089 0.225316 0.671373
-0.278481 0.286076 0.674510
-0.250000 -0.032911 0.596078
0.177215 -0.048101 0.448627
0.291139 -0.063291 0.580392
0.091772 0.589873 0.624314
-0.306962 -0.518987 0.467451
0.139241 0.012658 0.611765
0.234177 -0.397468 0.505098
-0.193038 -0.625316 0.395294
0.129747 0.605063 0.580392
0.424051 0.058228 0.577255
-0.117089 0.073418 0.288627
-0.022152 -0.412658 0.602353
0.158228 -0.382278 0.398431
-0.193038 -0.108861 0.633725
0.386076 -0.032911 0.580392
0.405063 -0.139241 0.552157
-0.164557 -0.367089 0.618039
-0.183544 -0.564557 0.448627
0.053797 -0.397468 0.586667
-0.069620 -0.306329 0.633725
0.044304 0.589873 0.630588
-0.174051 0.103797 0.636863
0.177215 0.726582 0.683922
-0.174051 0.043038 0.611765
0.471519 -0.063291 0.558431
0.462025 0.012658 0.564706
-0.193038 -0.564557 0.461176
-0.335443 -0.594937 0.580392
-0.240506 0.255696 0.238431
-0.012658 -0.169620 0.627451
0.101266 0.164557 0.282353
-0.022152 -0.245570 0.630588
0.310127 -0.200000 0.555294
-0.022152 0.286076 0.661961
0.177215 -0.458228 0.112941
0.376582 0.103797 0.586667
-0.069620 0.134177 0.103529
-0.069620 -0.154430 0.652549
0.120253 -0.640506 0.451765
-0.069620 0.179747 0.668235
0.300633 -0.124051 0.570980
0.300633 0.088608 0.674510
-0.268987 0.848101 0.000000
0.357595 0.043038 0.589804
-0.231013 -0.625316 0.445490
-0.174051 -0.215190 0.658824
-0.316456 -0.534177 0.486275
0.082278 0.559494 0.552157
-0.202532 -0.275949 0.630588
0.243671 -0.154430 0.533333
0.395570 0.210127 0.724706
0.044304 -0.351899 0.599216
0.063291 -0.579747 0.608627
-0.012658 -0.321519 0.618039
-0.107595 0.012658 0.580392
-0.060127 -0.564557 0.545882
-0.041139 -0.154430 0.640000
-0.126582 -0.351899 0.643137
0.120253 -0.321519 0.498824
-0.268987 0.134177 0.335686
0.006329 -0.579747 0.592941
-0.259494 0.559494 0.627451
-0.022152 -0.625316 0.564706
0.063291 0.483544 0.574118
-0.107595 -0.458228 0.608627
-0.174051 0.529114 0.661961
-0.145570 -0.412658 0.608627
0.452532 0.103797 0.574118
0.063291 0.559494 0.602353
-0.164557 0.210127 0.674510
-0.183544 0.544304 0.646275
0.044304 0.255696 0.012549
-0.202532 -0.048101 0.592941
0.072785 0.635443 0.655686
0.234177 0.772152 0.021961
0.186709 -0.321519 0.483137
0.091772 -0.427848 0.542745
0.063291 0.544304 0.545882
0.101266 -0.686076 0.445490
0.348101 -0.093671 0.577255
0.319620 -0.154430 0.567843
0.120253 0.650633 0.674510
0.091772 0.073418 0.203922
-0.240506 0.787342 0.285490
-0.316456 -0.503797 0.486275
0.338608 -0.048101 0.583529
-0.117089 -0.154430 0.649412
-0.278481 -0.427848 0.636863
0.082278 0.134177 0.263529
-0.287975 -0.063291 0.580392
0.329114 -0.032911 0.586667
0.015823 -0.610127 0.602353
-0.183544 -0.594937 0.414118
